ply
format ascii 1.0
comment VCGLIB generated
element vertex 697
property float x
property float y
property float z
property float nx
property float ny
property float nz
property uchar red
property uchar green
property uchar blue
property uchar alpha
element face 0
property list uchar int vertex_indices
end_header
1.31648 3.69009 -2.6851 0.831435 -0.432136 0.349248 53 44 42 255 
1.27479 3.66893 -2.67212 0.705626 -0.412876 0.57587 132 104 87 255 
1.30782 3.68913 -2.66469 0.858179 -0.405786 0.314432 106 74 73 255 
1.306 3.6967 -2.63731 0.321158 -0.897217 0.303083 109 68 48 255 
1.31007 3.71667 -2.62298 0.830549 -0.178687 0.527503 147 133 118 255 
1.24353 3.75453 -2.54252 -0.221874 0.500477 0.836836 156 127 119 255 
1.31589 3.72721 -2.64315 0.91487 -0.187386 0.35763 122 91 82 255 
1.30631 3.66135 -2.68794 0.464029 -0.405399 0.78761 126 83 74 255 
1.27534 3.72169 -2.56914 0.308164 -0.635374 0.70805 152 133 135 255 
1.25047 3.68431 -2.62674 -0.658921 -0.750018 0.057409 106 67 50 255 
1.26423 3.78205 -2.55374 -0.198077 0.597532 0.776995 119 84 79 255 
1.29874 3.73209 -2.57464 0.94894 -0.139143 0.283113 126 98 91 255 
1.24492 3.68532 -2.6451 0.215433 -0.955257 -0.202666 55 35 32 255 
1.24404 3.69466 -2.60454 -0.494223 -0.651814 0.575223 97 60 48 255 
1.25101 3.67019 -2.65614 -0.226221 -0.966371 0.122273 102 59 50 255 
1.27837 3.68573 -2.62094 -0.645329 0.613139 0.455644 108 69 54 255 
1.27595 3.70859 -2.58465 0.554317 -0.810388 0.189745 130 113 115 255 
1.31549 3.74803 -2.61292 0.902177 0.018233 0.430981 136 133 137 255 
1.2871 3.77174 -2.56246 0.955043 0.182648 0.233521 92 54 53 255 
1.30049 3.67555 -2.67499 0.560002 -0.656573 0.505281 135 93 80 255 
1.22969 3.68228 -2.62332 -0.810413 -0.514538 0.280147 94 55 43 255 
1.22701 3.70636 -2.63574 -0.09455 -0.65958 0.745664 102 61 44 255 
1.25942 3.72896 -2.55905 0.026863 -0.875488 0.482493 133 111 106 255 
1.2534 3.70173 -2.647 0.584865 -0.804258 -0.10537 106 66 55 255 
1.30679 3.74917 -2.59293 0.956492 0.034728 0.289685 78 60 59 255 
1.29981 3.71874 -2.5937 0.838217 -0.26853 0.47464 146 119 115 255 
1.28173 3.76095 -2.54583 0.447421 0.724362 0.524513 83 43 40 255 
1.19724 3.51826 -2.76396 0.505231 -0.204244 0.838467 168 139 110 255 
1.20861 3.58945 -2.77384 0.695619 0.136079 0.705405 92 59 40 255 
1.24486 3.61669 -2.75772 -0.41041 0.257579 0.874767 45 30 25 255 
1.21351 3.655 -2.71464 0.206985 -0.832822 0.513386 99 52 44 255 
1.29191 3.62006 -2.75994 0.497105 -0.866607 -0.043345 77 41 35 255 
1.22599 3.60072 -2.77424 0.227548 -0.897255 0.378358 109 62 47 255 
1.26331 3.59859 -2.76335 -0.245952 -0.553928 0.795407 60 33 22 255 
1.2865 3.65587 -2.68441 0.171479 -0.686429 0.70669 131 86 71 255 
1.30362 3.65891 -2.70646 0.785511 -0.613243 0.083103 103 59 48 255 
1.28255 3.63295 -2.7246 0.755562 -0.568303 0.325819 145 106 91 255 
1.31146 3.6409 -2.73878 0.687896 -0.632541 0.355936 100 60 48 255 
1.23326 3.63033 -2.74469 -0.048823 -0.623369 0.780402 114 62 49 255 
1.27126 3.66313 -2.69645 -0.305057 -0.834983 0.457978 127 90 82 255 
1.23368 3.56436 -2.77373 0.071442 0.363081 0.929015 66 48 38 255 
1.21489 3.54857 -2.76957 0.396107 0.076404 0.91502 160 134 107 255 
1.26987 3.62022 -2.75193 -0.154053 -0.928526 0.337798 99 54 41 255 
1.22313 3.62028 -2.76103 -0.284106 -0.701056 0.654068 66 36 26 255 
1.25971 3.62849 -2.72876 0.345782 -0.842736 -0.412591 107 66 54 255 
1.25122 3.65909 -2.68787 0.228121 -0.959593 0.164748 79 48 43 255 
1.27578 3.61305 -2.77778 0.804456 -0.479514 0.350595 57 27 21 255 
1.21006 3.56713 -2.76998 0.835489 -0.155769 0.526968 152 125 108 255 
1.23629 3.65938 -2.70428 -0.119516 -0.719088 0.684564 104 60 48 255 
1.23641 3.64602 -2.7232 -0.563524 -0.753431 -0.338796 48 35 32 255 
1.21215 3.63788 -2.73038 -0.46474 -0.301327 0.832598 42 26 25 255 
1.28949 3.64385 -2.70357 0.848636 -0.525905 -0.056931 114 77 67 255 
1.2656 3.64837 -2.70851 -0.303399 -0.902051 0.307007 104 66 57 255 
1.37164 4.02475 -2.67222 0.493197 -0.082999 0.865949 141 104 78 255 
1.33648 4.00214 -2.65417 0.731036 0.002311 0.682335 172 144 116 255 
1.33906 4.02218 -2.65683 0.521624 0.21015 0.826889 166 141 113 255 
1.31877 4.01646 -2.6567 0.239798 -0.217254 0.946202 175 153 130 255 
1.36459 4.06807 -2.6685 0.259646 -0.033576 0.96512 157 134 111 255 
1.40042 4.30351 -2.69357 0.455543 0.044189 0.889116 179 153 129 255 
1.44384 4.27409 -2.70008 0.108228 -0.190032 0.975794 181 154 142 255 
1.2764 4.04553 -2.66966 -0.592422 0.021386 0.805344 154 126 94 255 
1.3164 4.08744 -2.66807 -0.078722 0.309415 0.947663 147 125 110 255 
1.31089 4.13543 -2.68051 -0.207756 0.261628 0.942544 158 139 120 255 
1.27957 4.10978 -2.68268 -0.346525 0.153396 0.925414 146 129 109 255 
1.20888 4.26618 -2.73406 -0.363219 0.063173 0.92956 152 136 112 255 
1.35691 4.21339 -2.68489 -0.091554 0.21617 0.972054 160 136 111 255 
1.32552 4.25493 -2.6958 -0.023659 0.103325 0.994366 154 136 119 255 
1.3469 4.11586 -2.67164 0.172397 0.182256 0.96802 174 156 133 255 
1.40239 4.20896 -2.68442 0.0316 0.12561 0.991576 182 167 148 255 
1.30021 4.24058 -2.69672 -0.239725 0.211193 0.947591 162 145 120 255 
1.41369 4.29047 -2.69506 0.30464 0.11972 0.944913 187 161 130 255 
1.37876 4.17825 -2.68007 -0.017839 0.201361 0.979355 161 135 108 255 
1.35313 4.27028 -2.69233 -0.120823 0.038646 0.991921 164 144 123 255 
1.30265 4.2956 -2.70115 -0.203394 0.048008 0.977919 161 140 118 255 
1.23875 4.11795 -2.69781 -0.25844 0.298791 0.918658 138 109 79 255 
1.42385 4.27357 -2.69796 0.348529 -0.177024 0.920429 163 136 110 255 
1.2459 4.2758 -2.71889 -0.3714 0.040886 0.927572 151 144 126 255 
1.36614 4.11143 -2.67221 0.196619 0.129638 0.971872 165 140 119 255 
1.29726 4.15577 -2.68838 -0.303555 0.195603 0.93252 148 132 112 255 
1.31849 4.11201 -2.67423 -0.044386 0.282968 0.958102 161 134 110 255 
1.32784 4.19561 -2.68501 -0.244303 0.123588 0.961791 145 127 113 255 
1.28393 4.22385 -2.70199 -0.353032 0.152842 0.923043 156 138 117 255 
1.32933 4.29795 -2.69712 -0.201399 0.01314 0.979421 182 159 127 255 
1.34829 4.30662 -2.69325 -0.202397 -0.009032 0.979262 166 145 121 255 
1.30744 4.06993 -2.66279 0.105556 0.309352 0.945071 179 157 118 255 
1.24276 4.19117 -2.71189 -0.329852 0.203665 0.921802 144 131 119 255 
1.23181 4.21301 -2.72133 -0.313988 0.163379 0.935264 147 134 119 255 
1.39637 4.26192 -2.68721 0.087812 0.033807 0.995563 180 160 137 255 
1.34925 4.25192 -2.69202 -0.204248 0.150853 0.967226 155 134 111 255 
1.44527 4.25822 -2.70987 0.545733 0.021114 0.837693 140 117 95 255 
1.44726 4.0863 -2.72562 0.673633 -0.26791 0.688799 160 133 108 255 
1.45719 4.10514 -2.73087 0.793869 -0.205596 0.572278 126 103 83 255 
1.35548 4.02951 -2.66378 0.317851 0.230583 0.919675 163 131 102 255 
1.31454 4.16084 -2.68266 -0.211715 0.122275 0.969652 159 143 123 255 
1.29235 4.19505 -2.6965 -0.287013 0.081003 0.954496 165 148 125 255 
1.23501 4.17358 -2.71161 -0.365306 0.189926 0.911307 145 132 116 255 
1.36948 4.23021 -2.68527 -0.121338 0.124008 0.984834 169 150 126 255 
1.40565 4.22992 -2.68913 0.258664 0.107246 0.959995 182 157 130 255 
1.40597 4.05835 -2.69634 0.631181 -0.091102 0.770267 135 103 84 255 
1.38573 4.08838 -2.67656 0.181384 0.119022 0.976183 149 129 112 255 
1.2185 4.18302 -2.71906 -0.321818 0.214761 0.922123 159 143 118 255 
1.42016 4.21251 -2.6886 0.140668 0.199854 0.969676 170 146 121 255 
1.29488 4.05706 -2.65572 -0.354846 0.159589 0.921203 161 142 114 255 
1.43085 4.09509 -2.70562 0.673081 -0.154035 0.72335 154 132 108 255 
1.26729 4.13674 -2.69473 -0.269258 0.039805 0.962245 151 134 112 255 
1.23449 4.15202 -2.70806 -0.221827 0.226121 0.948505 152 132 108 255 
1.44629 4.2062 -2.7083 0.552515 0.112953 0.825814 166 141 110 255 
1.39432 4.28256 -2.68845 0.023067 0.17108 0.984987 165 143 120 255 
1.43596 4.28887 -2.70811 0.227841 -0.067943 0.971325 159 137 116 255 
1.24902 4.13855 -2.70082 -0.363113 0.165754 0.916883 148 132 110 255 
1.33024 4.07389 -2.66558 0.061994 0.19949 0.977937 143 112 88 255 
1.32997 4.1269 -2.67538 -0.237225 0.214634 0.947448 172 159 131 255 
1.25071 4.16607 -2.70311 -0.363542 0.18311 0.913405 156 141 117 255 
1.36898 4.25731 -2.68936 -0.041349 0.134043 0.990113 161 135 108 255 
1.22122 4.07044 -2.69094 -0.187607 0.098856 0.977257 162 145 125 255 
1.41499 4.25187 -2.69185 0.250257 0.177367 0.951794 130 115 104 255 
1.33767 4.05197 -2.66045 0.023743 0.125522 0.991807 155 127 100 255 
1.38546 4.03544 -2.68388 0.569199 -0.249684 0.783371 169 140 113 255 
1.33703 4.16698 -2.68099 -0.206617 0.192627 0.959273 150 129 114 255 
1.39595 4.16234 -2.6811 0.236168 0.096727 0.966886 166 141 119 255 
1.45745 4.24408 -2.71891 0.682828 0.003205 0.730572 158 136 111 255 
1.27034 4.26466 -2.71004 -0.404724 -0.052915 0.912907 158 142 121 255 
1.31032 4.22494 -2.69325 -0.311025 0.064919 0.948182 161 144 125 255 
1.40751 4.11783 -2.687 0.595132 -0.049197 0.802121 149 119 97 255 
1.42286 4.14714 -2.69516 0.455043 -0.112585 0.883324 156 135 118 255 
1.38696 4.31673 -2.69341 0.051194 0.282012 0.958044 167 147 122 255 
1.2854 4.14121 -2.68989 -0.210912 0.133031 0.96841 151 128 101 255 
1.21861 4.10115 -2.69634 -0.161978 0.125434 0.97879 181 164 138 255 
1.4549 4.29921 -2.71779 0.617744 -0.119932 0.77718 160 135 106 255 
1.44806 4.22818 -2.70992 0.672993 -0.070946 0.736239 163 133 109 255 
1.44954 4.1759 -2.7119 0.772449 -0.121284 0.623388 137 111 86 255 
1.31076 4.1856 -2.68932 -0.336719 0.112212 0.934895 155 138 109 255 
1.32848 4.27463 -2.69581 -0.088318 -0.024675 0.995787 153 136 116 255 
1.27196 4.16617 -2.69652 -0.181001 0.190739 0.96481 136 114 93 255 
1.36369 4.04684 -2.6676 0.251813 -0.0001 0.967776 168 145 120 255 
1.22943 4.26402 -2.72558 -0.327517 0.020504 0.944623 165 151 132 255 
1.4399 4.1527 -2.70448 0.587523 -0.160867 0.793057 168 142 116 255 
1.42675 4.1655 -2.69547 0.710071 -0.281105 0.645584 127 103 92 255 
1.34456 4.08877 -2.66714 -0.109131 0.29057 0.95061 157 138 122 255 
1.41461 4.07804 -2.69717 0.569773 -0.222229 0.791185 169 143 118 255 
1.27547 4.28344 -2.70841 -0.195648 0.087711 0.976744 158 143 118 255 
1.36978 4.28751 -2.69118 -0.145212 0.033848 0.988822 164 139 114 255 
1.45871 4.2002 -2.72256 0.76501 -0.077804 0.639301 142 118 94 255 
1.28167 4.2481 -2.70481 -0.219103 0.025734 0.975362 156 132 107 255 
1.30901 4.0352 -2.65775 0.335838 0.086469 0.937942 183 172 142 255 
1.34939 4.14966 -2.67531 -0.1875 0.200704 0.961541 163 142 115 255 
1.387 4.05884 -2.68046 0.456764 -0.1069 0.883141 167 148 125 255 
1.33554 4.2153 -2.6857 -0.097897 0.163658 0.981648 163 136 111 255 
1.30128 4.11919 -2.6798 -0.242719 0.326877 0.913367 151 127 102 255 
1.26516 4.09086 -2.68161 -0.262844 0.359646 0.895303 149 129 105 255 
1.36323 4.13133 -2.67273 -0.22966 -0.001334 0.97327 156 135 118 255 
1.33801 4.23476 -2.68912 -0.098435 0.15301 0.98331 159 141 119 255 
1.40204 4.0999 -2.68434 0.706779 -0.222153 0.671649 143 119 99 255 
1.30469 4.27018 -2.69983 -0.354249 0.204737 0.912464 179 167 145 255 
1.24366 4.24536 -2.72034 -0.346248 0.107618 0.93195 138 118 99 255 
1.40278 4.18128 -2.68108 0.493292 0.32442 0.807103 200 171 138 255 
1.2463 4.1014 -2.69203 -0.189398 0.241992 0.951613 143 117 89 255 
1.38389 4.21699 -2.68557 0.078952 0.147432 0.985916 193 172 142 255 
1.3567 4.17447 -2.67875 -0.080503 0.122373 0.989214 170 148 118 255 
1.43931 4.12929 -2.70804 0.515272 -0.026013 0.856632 190 163 133 255 
1.43257 4.07008 -2.71315 0.646472 -0.276231 0.711175 162 133 106 255 
1.22135 4.1253 -2.70471 -0.230557 0.249498 0.940529 136 126 111 255 
1.39875 4.14186 -2.68133 0.404356 0.100344 0.90908 185 160 131 255 
1.25878 4.11898 -2.69299 -0.365766 0.241594 0.898803 151 130 106 255 
1.25035 4.07573 -2.68345 -0.40554 0.14028 0.903249 151 132 106 255 
1.28427 4.07328 -2.66936 -0.364451 0.360633 0.858557 160 136 100 255 
1.44381 4.10897 -2.70987 0.819214 -0.228662 0.52593 139 114 93 255 
1.42107 4.12861 -2.69379 0.521702 -0.114962 0.845346 156 136 113 255 
1.3785 4.15099 -2.67451 0.087717 0.073314 0.993444 156 135 114 255 
1.25807 4.22652 -2.71377 -0.4069 0.192419 0.892977 170 150 115 255 
1.3172 4.05514 -2.65504 0.198774 0.322718 0.925388 180 165 134 255 
1.45406 4.13041 -2.71966 0.766378 0.255766 0.589277 159 138 110 255 
1.26534 4.18615 -2.70269 -0.345721 0.181376 0.920641 153 143 128 255 
1.38683 4.10944 -2.67613 0.174192 0.005026 0.984699 166 157 155 255 
1.36118 4.1945 -2.68169 -0.040165 0.137991 0.989619 156 143 131 255 
1.28839 4.09499 -2.6748 -0.147148 0.199584 0.968769 150 125 103 255 
1.26394 4.20637 -2.70614 -0.275278 0.260325 0.925448 163 148 125 255 
1.36369 4.09332 -2.66863 0.327921 -0.060784 0.942748 155 129 105 255 
1.38847 4.23761 -2.68776 -0.072862 0.054647 0.995844 167 145 119 255 
1.45592 4.15641 -2.72078 0.625879 -0.091447 0.77454 161 135 110 255 
1.43491 4.24098 -2.70091 0.537443 0.025946 0.842901 153 128 106 255 
1.424 4.18389 -2.69482 0.579609 -0.050403 0.813335 189 162 125 255 
1.38802 4.19617 -2.68327 0.233924 0.205584 0.950271 202 177 155 255 
1.47879 4.18685 -2.75054 0.870177 -0.028119 0.491936 156 123 90 255 
1.49246 4.21162 -2.77694 0.95896 -0.177165 0.221377 144 120 94 255 
1.46268 4.26428 -2.72332 0.718375 0.058115 0.693225 143 118 93 255 
1.49955 4.21914 -2.79491 0.927747 -0.108844 0.356984 137 113 87 255 
1.48697 4.1963 -2.76775 0.978889 -0.028648 0.202374 129 104 79 255 
1.49915 4.20118 -2.804 0.902983 0.192947 0.383919 136 114 91 255 
1.47388 4.25442 -2.73926 0.949507 0.031897 0.312121 154 130 104 255 
1.4955 4.15581 -2.79474 0.98523 -0.149293 0.083871 131 106 82 255 
1.47415 4.16833 -2.74876 0.918147 -0.122152 0.376942 135 111 83 255 
1.48164 4.15772 -2.76358 0.889518 0.089878 0.447974 96 77 70 255 
1.47643 4.20968 -2.74733 0.971387 -0.060061 0.229783 140 113 86 255 
1.47635 4.23217 -2.74172 0.903545 0.266199 0.335774 96 77 76 255 
1.47561 4.10733 -2.75735 0.876764 -0.082407 0.473809 154 135 105 255 
1.50101 4.23497 -2.81861 0.992864 0.116566 0.025176 121 100 70 255 
1.46545 4.17903 -2.72895 0.789748 0.200353 0.579791 141 111 85 255 
1.46504 4.21493 -2.73263 0.731677 -0.213334 0.647408 120 98 78 255 
1.48038 4.27721 -2.74834 0.873241 0.006598 0.487244 161 135 106 255 
1.4641 4.12416 -2.73705 0.486621 -0.049656 0.872201 124 95 68 255 
1.48394 4.22777 -2.76266 0.985686 -0.078489 0.149207 140 112 89 255 
1.48986 4.18285 -2.78087 0.935773 -0.160261 0.314078 136 112 86 255 
1.47655 4.12906 -2.75131 0.586345 0.368106 0.721594 172 148 120 255 
1.49412 4.23779 -2.77939 0.976244 -0.174659 -0.12823 157 128 100 255 
1.46742 4.15175 -2.73474 0.890003 0.201165 0.409179 106 86 70 255 
1.4875 4.24915 -2.76529 0.960355 -0.070386 0.269747 91 73 69 255 
1.4837 4.13926 -2.76895 0.853182 0.077039 0.515893 155 124 97 255 
1.27291 3.91526 -2.65734 0.266996 -0.000152 0.963698 153 139 118 255 
1.34338 3.79125 -2.70859 0.875011 -0.438145 0.205874 160 141 119 255 
1.33503 3.73496 -2.7317 0.879036 -0.280438 0.385551 127 120 111 255 
1.22164 3.96549 -2.68564 -0.365728 0.224469 0.903248 140 122 101 255 
1.35923 3.83599 -2.72039 0.916748 -0.289604 0.275142 161 139 108 255 
1.39206 3.84221 -2.78768 0.833429 -0.310892 0.456882 148 125 99 255 
1.3145 3.70874 -2.65905 0.889545 0.381003 0.252084 109 86 75 255 
1.39171 3.97533 -2.70613 0.749482 -0.107419 0.653252 163 134 109 255 
1.4068 3.94514 -2.73483 0.838217 -0.26853 0.47464 124 98 78 255 
1.34742 3.96502 -2.66455 0.752275 -0.090461 0.652609 160 133 104 255 
1.26753 3.82078 -2.59203 0.578869 0.763616 0.28601 72 50 52 255 
1.22776 3.87497 -2.65454 -0.172979 -0.133362 0.975855 118 111 106 255 
1.29292 4.0183 -2.6617 -0.277747 -0.094798 0.955965 172 147 124 255 
1.41456 3.88265 -2.7934 0.835133 -0.183075 0.518688 142 122 99 255 
1.29996 3.76631 -2.58703 0.845852 0.12796 0.517843 94 69 61 255 
1.33091 3.97145 -2.65861 0.056153 0.062307 0.996476 161 137 111 255 
1.35922 3.98251 -2.67024 0.597719 -0.269619 0.755008 118 97 76 255 
1.23979 3.94313 -2.67316 -0.491728 0.164649 0.85504 117 104 93 255 
1.22733 3.92211 -2.67195 -0.166467 0.27091 0.948102 138 124 109 255 
1.3736 3.80166 -2.78738 0.822899 -0.420341 0.382297 122 101 73 255 
1.37506 3.94292 -2.70024 0.771874 -0.352433 0.529151 163 139 109 255 
1.40885 3.92751 -2.74699 0.902091 -0.334606 0.272526 124 108 91 255 
1.22181 3.84087 -2.61459 -0.141054 0.983868 0.110035 90 66 65 255 
1.3326 3.77176 -2.67575 0.988925 -0.042946 -0.142066 140 125 102 255 
1.30463 3.88672 -2.65793 0.134836 0.084197 0.987284 149 135 118 255 
1.24539 3.9135 -2.66049 0.07895 0.136743 0.987456 140 132 116 255 
1.29038 3.78749 -2.58023 0.813781 0.41301 0.408881 96 62 59 255 
1.2778 3.83867 -2.62844 0.14556 0.936202 0.319904 104 73 73 255 
1.2441 3.85747 -2.64808 0.118702 0.575917 0.808845 90 65 63 255 
1.35864 3.79947 -2.75038 0.936731 -0.296253 0.186465 137 122 103 255 
1.3856 3.87951 -2.74624 0.831491 -0.371851 0.412734 146 130 107 255 
1.29892 3.92231 -2.65813 0.197536 0.061977 0.978335 155 133 109 255 
1.24019 3.9875 -2.68484 -0.319904 0.190693 0.928061 136 122 107 255 
1.25847 3.94232 -2.66425 -0.314831 0.198196 0.928224 149 133 104 255 
1.34825 3.76477 -2.75464 0.951148 -0.299377 0.075434 106 87 67 255 
1.36381 3.80565 -2.76825 0.885983 -0.30338 0.350708 128 104 79 255 
1.35387 3.90474 -2.68547 0.881148 -0.15271 0.447502 122 99 76 255 
1.323 3.82861 -2.6431 0.887176 0.33792 0.314212 115 114 115 255 
1.33107 3.7523 -2.67247 0.875097 -0.469272 0.118272 93 82 74 255 
1.38518 3.89245 -2.7294 0.663946 -0.360937 0.654904 126 107 86 255 
1.42449 3.92978 -2.77925 0.859831 -0.279217 0.427468 139 109 79 255 
1.29572 3.83114 -2.63128 0.348054 0.789202 0.505983 78 52 53 255 
1.32118 3.75664 -2.634 0.978879 -0.017559 0.203687 126 122 105 255 
1.39916 3.86023 -2.78575 0.816333 -0.314845 0.484224 136 113 90 255 
1.31879 3.73373 -2.6634 0.982197 0.018563 0.186936 107 91 84 255 
1.35702 3.92428 -2.68415 0.538044 -0.047027 0.841604 129 108 85 255 
1.25705 3.88914 -2.65284 -0.216365 0.284837 0.933838 136 124 114 255 
1.42743 3.9103 -2.79866 0.927727 -0.162427 0.336066 142 116 97 255 
1.32426 3.87935 -2.66237 0.304632 0.102229 0.946968 169 163 141 255 
1.36012 4.01112 -2.6647 0.86986 -0.133299 0.474947 164 131 96 255 
1.31003 3.81172 -2.62546 0.785987 0.153432 0.598902 126 119 109 255 
1.32386 3.93439 -2.66639 0.488668 -0.232223 0.840997 174 150 115 255 
1.32852 3.80837 -2.65127 0.878756 -0.087563 0.469171 139 122 92 255 
1.37915 3.91026 -2.71802 0.758886 -0.145141 0.634844 137 112 85 255 
1.35417 3.77112 -2.77397 0.974887 -0.014084 0.222256 140 123 102 255 
1.23486 3.8198 -2.58401 0.097258 0.794229 0.599785 96 84 83 255 
1.42556 3.95782 -2.75246 0.730531 -0.457433 0.50703 84 65 51 255 
1.26571 3.86369 -2.65247 0.039188 0.153887 0.987311 134 128 120 255 
1.36854 3.8905 -2.71072 0.707554 -0.106468 0.698593 165 139 104 255 
1.31825 3.91452 -2.66465 0.048006 0.040257 0.998036 149 129 108 255 
1.22891 3.84839 -2.63257 -0.184316 0.859414 0.476902 102 68 67 255 
1.32739 3.71796 -2.73067 0.755164 -0.174919 -0.631768 115 97 89 255 
1.28912 3.8191 -2.60981 0.819408 0.065222 0.569488 106 72 70 255 
1.3513 3.83385 -2.70161 0.937014 -0.149272 0.315788 121 105 83 255 
1.31362 3.78152 -2.61325 0.901946 -0.339756 0.26657 82 75 69 255 
1.33625 3.75577 -2.72374 0.853682 -0.519211 -0.040581 139 123 99 255 
1.3928 4.00377 -2.69925 0.523197 -0.290333 0.801232 152 122 102 255 
1.31888 3.95362 -2.66119 0.211102 -0.145893 0.966515 188 161 134 255 
1.28128 3.81059 -2.58359 0.408698 0.771132 0.488181 110 86 82 255 
1.32678 3.78212 -2.64262 0.913647 0.125319 0.386711 126 117 104 255 
1.26386 3.84903 -2.63821 0.105398 0.831882 0.544851 46 31 32 255 
1.2777 3.7992 -2.56798 0.974906 -0.036298 0.219637 85 63 65 255 
1.36336 3.9647 -2.68135 0.793238 -0.107439 0.599358 152 118 82 255 
1.27398 4.02398 -2.66583 -0.222847 -0.147789 0.963586 179 157 118 255 
1.34703 3.84411 -2.68455 0.909725 -0.069529 0.409349 130 110 93 255 
1.35345 3.78363 -2.75921 0.905418 -0.352971 0.235858 108 89 68 255 
1.34688 3.80994 -2.71156 0.953934 -0.219628 0.204384 147 132 113 255 
1.33152 3.73499 -2.70915 0.977615 -0.209511 -0.019363 113 104 97 255 
1.30851 3.85298 -2.65034 -0.007636 0.046598 0.998885 122 109 97 255 
1.27215 3.95763 -2.6636 -0.310673 0.036422 0.949819 144 133 120 255 
1.28605 3.85775 -2.65202 0.31292 0.682689 0.660316 98 68 63 255 
1.37784 3.98848 -2.6887 0.707047 -0.167164 0.687125 156 130 103 255 
1.32161 3.71843 -2.68364 0.861054 -0.263286 0.435048 105 97 95 255 
1.40276 3.99266 -2.71035 0.750159 -0.281447 0.598372 152 125 100 255 
1.31339 3.99517 -2.65998 -0.16362 0.177816 0.970366 189 159 127 255 
1.34183 3.94733 -2.66942 0.418358 -0.09172 0.90364 145 125 106 255 
1.39301 3.9358 -2.723 0.644989 -0.134372 0.752286 158 136 114 255 
1.4057 3.97234 -2.72298 0.69483 -0.293217 0.656685 156 125 94 255 
1.29719 3.96728 -2.65772 -0.20373 0.105034 0.973377 159 136 108 255 
1.39798 3.91262 -2.7349 0.696871 -0.451125 0.557546 146 124 98 255 
1.2163 3.94471 -2.68198 -0.291867 0.289422 0.911619 131 112 94 255 
1.28017 3.9743 -2.66196 -0.129475 0.14124 0.981472 152 132 103 255 
1.2517 3.84455 -2.62188 0.285307 0.892106 0.350353 105 71 69 255 
1.33458 3.77962 -2.6957 0.982033 -0.13337 0.133508 129 117 95 255 
1.29994 3.9489 -2.65837 0.13265 -0.162417 0.977765 184 164 137 255 
1.33726 3.83988 -2.66508 0.819305 0.008199 0.573299 140 116 85 255 
1.30037 3.79768 -2.59829 0.849148 0.205145 0.486687 92 61 55 255 
1.39874 3.87794 -2.76899 0.764161 -0.430761 0.480108 162 127 97 255 
1.33976 3.77363 -2.71993 0.745138 -0.244448 0.620495 134 118 101 255 
1.38456 3.85937 -2.75965 0.880349 -0.179949 0.438866 169 150 120 255 
1.39965 3.9001 -2.7498 0.840917 -0.360696 0.403431 155 128 95 255 
1.26443 3.99347 -2.67105 -0.467967 0.192102 0.862614 135 120 104 255 
1.33427 3.73865 -2.75041 0.881106 -0.452245 -0.1383 127 109 88 255 
1.38977 3.9557 -2.71245 0.700117 -0.313888 0.641335 137 107 79 255 
1.33882 3.86068 -2.6682 0.860266 -0.167557 0.481526 152 134 106 255 
1.38282 3.82563 -2.78431 0.809575 -0.406682 0.423318 157 140 120 255 
1.35763 3.81552 -2.731 0.905004 -0.370569 0.208915 119 102 79 255 
1.36121 3.77116 -2.7922 0.850496 -0.239104 0.468494 136 117 90 255 
1.29477 3.99304 -2.6617 -0.195675 0.116158 0.973765 149 131 115 255 
1.32446 3.70053 -2.71041 0.923691 -0.358247 0.135843 79 71 65 255 
1.25522 3.79701 -2.56295 -0.09996 0.52874 0.842878 106 77 78 255 
1.33696 3.91807 -2.66896 0.626234 0.004125 0.779624 103 77 54 255 
1.26078 3.83623 -2.60564 0.116318 0.725626 0.678187 162 151 129 255 
1.36734 3.86147 -2.71834 0.915918 -0.330736 0.227392 112 93 71 255 
1.37114 3.84752 -2.73855 0.86409 -0.258153 0.432093 136 120 101 255 
1.32047 3.74866 -2.65212 0.995703 0.060815 0.069831 119 109 97 255 
1.32968 3.71772 -2.70142 0.988396 -0.055181 0.14152 115 108 104 255 
1.33021 3.75362 -2.70524 0.91517 -0.395965 0.07533 122 110 92 255 
1.35378 3.87898 -2.69215 0.887836 -0.063514 0.455756 167 144 115 255 
1.37556 3.82701 -2.76105 0.769758 -0.555816 0.313911 146 122 85 255 
1.41774 3.93838 -2.75929 0.892596 -0.333247 0.303677 159 128 94 255 
1.34494 3.81777 -2.6917 0.959396 -0.009827 0.28189 92 78 66 255 
1.35339 3.86019 -2.69446 0.776842 -0.288622 0.559655 128 105 87 255 
1.25592 3.97093 -2.66923 -0.439363 0.171292 0.881827 146 126 102 255 
1.36197 3.78744 -2.78061 0.927447 -0.30088 0.222065 122 107 84 255 
1.36675 3.91283 -2.70352 0.803447 -0.166398 0.57165 117 91 69 255 
1.26197 3.81015 -2.57673 0.020428 0.611696 0.790829 84 59 62 255 
1.2883 3.90338 -2.65761 0.281321 -0.095194 0.95488 153 138 117 255 
1.37793 3.96599 -2.6943 0.621988 -0.410535 0.666777 128 94 61 255 
1.32966 3.73728 -2.68863 0.695591 -0.124329 0.707599 122 117 114 255 
1.33661 3.79944 -2.66871 0.94169 -0.17866 0.285131 104 89 74 255 
1.28345 3.93494 -2.65844 -0.128903 0.123775 0.983902 160 144 111 255 
1.23879 3.83512 -2.60399 0.245473 0.853206 0.460198 86 63 62 255 
1.34422 3.89371 -2.6717 0.825265 -0.119235 0.552015 136 110 79 255 
1.41147 3.90365 -2.77516 0.829134 -0.403029 0.387434 153 131 104 255 
1.34647 3.78148 -2.74057 0.952143 -0.294556 0.081606 144 122 96 255 
1.27728 3.88262 -2.65313 -0.008689 0.149313 0.988752 121 110 95 255 
1.31907 3.66041 -2.76014 0.948 -0.302596 0.098652 84 64 57 255 
1.31499 3.66094 -2.74158 0.884553 -0.389106 0.257219 93 53 49 255 
1.32489 3.6775 -2.76709 0.954848 -0.205308 0.214744 95 64 59 255 
1.33362 3.72295 -2.76124 0.85958 -0.508449 0.051015 131 119 105 255 
1.3238 3.69159 -2.78169 0.739778 -0.219615 -0.636002 108 76 71 255 
1.30285 3.63597 -2.75813 0.833027 -0.535983 0.137069 115 77 62 255 
1.32467 3.69599 -2.72892 0.997175 0.075044 -0.003328 59 33 28 255 
1.30038 3.63076 -2.78185 0.688097 -0.511892 0.514285 90 50 41 255 
1.32556 3.70671 -2.74974 0.964076 -0.229631 -0.133517 63 38 34 255 
1.3404 3.73088 -2.78808 0.796139 -0.285539 0.533508 143 136 123 255 
1.32541 3.68565 -2.7503 0.913664 -0.325548 0.243387 83 54 50 255 
1.31508 3.66591 -2.721 0.941837 -0.293649 0.163445 86 55 49 255 
1.3308 3.7138 -2.78058 0.995968 -0.003846 0.089623 92 85 79 255 
1.33524 3.73905 -2.77047 0.683413 -0.44743 0.576848 139 132 119 255 
1.34471 3.75419 -2.77887 0.902214 -0.324273 0.284354 133 118 97 255 
1.43534 3.98212 -2.75218 0.841707 -0.320726 0.434354 136 111 92 255 
1.25545 4.05146 -2.68105 -0.284948 0.046002 0.957438 146 130 116 255 
1.42061 3.97278 -2.74022 0.710218 -0.248313 0.658734 153 127 104 255 
1.42399 4.05308 -2.71199 0.607154 -0.142702 0.781665 159 131 106 255 
1.40819 4.01664 -2.70674 0.578065 -0.216424 0.786766 161 132 109 255 
1.44705 4.06734 -2.7266 0.704174 -0.243731 0.666884 153 124 97 255 
1.41165 4.04138 -2.70343 0.587117 -0.413935 0.695666 148 122 101 255 
1.41629 3.9947 -2.72375 0.685932 -0.20228 0.698985 136 114 95 255 
1.44095 3.96975 -2.78003 0.85629 -0.347938 0.381716 119 93 77 255 
1.42926 3.95284 -2.77359 0.911305 -0.256673 0.321936 141 115 91 255 
1.25259 4.02278 -2.68012 -0.421465 0.049978 0.905466 140 114 92 255 
1.44524 4.00701 -2.75116 0.792416 -0.471701 0.38675 141 116 92 255 
1.43539 3.9299 -2.80422 0.777897 -0.494998 0.387109 120 99 75 255 
1.44448 3.95588 -2.79537 0.839912 -0.282893 0.463162 157 128 97 255 
1.23574 4.01612 -2.68955 -0.303145 0.04759 0.951755 136 121 112 255 
1.44581 3.98861 -2.77353 0.802084 -0.389426 0.452779 151 121 95 255 
1.45725 4.06436 -2.74291 0.902507 -0.244093 0.354823 173 149 117 255 
1.22204 3.99947 -2.69037 -0.322166 -0.001754 0.946682 142 130 118 255 
1.23319 4.03911 -2.68766 -0.186242 0.024253 0.982204 156 136 119 255 
1.43267 4.00152 -2.73765 0.727286 -0.383625 0.569111 139 117 95 255 
1.42502 4.03537 -2.71782 0.627828 -0.207108 0.750292 174 142 110 255 
1.42611 4.01556 -2.72322 0.687094 -0.299205 0.662101 148 120 97 255 
1.44154 4.0489 -2.73089 0.856454 -0.275473 0.436579 139 113 88 255 
1.44171 4.03044 -2.73599 0.760014 -0.20467 0.616837 167 143 114 255 
1.45455 4.02844 -2.76082 0.809755 -0.412083 0.417714 134 109 87 255 
1.37821 4.01071 -2.68664 0.652596 -0.37072 0.660822 111 83 71 255 
1.46041 4.05561 -2.76099 0.880825 -0.243225 0.40619 148 126 108 255 
1.48805 4.11212 -2.79848 0.78162 -0.292709 0.55081 150 120 88 255 
1.50414 4.16801 -2.82888 0.966735 0.246605 0.067899 108 78 55 255 
1.47745 4.06979 -2.79058 0.929571 -0.31881 0.185092 127 102 80 255 
1.4546 3.98673 -2.79294 0.778058 -0.412735 0.473577 145 121 96 255 
1.50188 4.17885 -2.81134 0.987954 0.144503 -0.055372 124 102 74 255 
1.47088 4.07344 -2.76921 0.961962 -0.134191 0.237953 135 114 90 255 
1.49969 4.13975 -2.8256 0.939405 -0.137303 0.314113 125 97 71 255 
1.49075 4.1367 -2.79371 0.951874 -0.138418 0.273452 145 103 61 255 
1.48186 4.04451 -2.81299 0.888511 -0.252506 0.38313 136 116 95 255 
1.48837 4.0882 -2.80911 0.759545 0.230269 0.608331 60 47 37 255 
1.46144 4.08314 -2.74114 0.936784 -0.267785 0.225225 167 138 109 255 
1.46716 4.04223 -2.78087 0.857256 -0.237887 0.456642 151 121 92 255 
1.48159 4.11635 -2.77636 0.882103 -0.1417 0.449238 114 90 69 255 
1.47388 4.02835 -2.80768 0.928252 -0.251127 0.274379 127 102 80 255 
1.46002 4.01809 -2.78288 0.861921 -0.118267 0.493056 74 57 43 255 
1.45205 4.00588 -2.77088 0.942607 -0.136612 0.304679 131 106 83 255 
1.47454 4.09624 -2.77788 0.896388 -0.281063 0.342771 133 106 79 255 
1.49436 4.12291 -2.81524 0.962588 0.020093 0.270225 133 109 82 255 
1.46733 4.01243 -2.79911 0.859308 -0.210962 0.465923 146 116 91 255 
1.43865 4.55656 -2.72917 0.090408 0.543019 0.834839 114 77 81 255 
1.33565 4.58419 -2.68675 0.100617 0.516485 0.850364 172 148 128 255 
1.42943 4.57429 -2.73318 0.489507 0.634522 0.598135 155 114 122 255 
1.41755 4.47333 -2.7194 0.494657 0.018548 0.86889 156 124 97 255 
1.33759 4.51388 -2.69176 0.047826 0.068831 0.996481 159 135 105 255 
1.267 4.56244 -2.6865 -0.147237 -0.134345 0.979935 176 156 130 255 
1.37477 4.53145 -2.70247 0.228171 0.359517 0.904813 158 131 101 255 
1.3732 4.45461 -2.69816 0.174037 0.073102 0.982022 147 127 110 255 
1.3854 4.54777 -2.70952 0.228479 0.079254 0.970318 172 159 148 255 
1.4316 4.5195 -2.73695 0.484145 -0.13347 0.864748 130 81 72 255 
1.36077 4.55524 -2.69953 0.282215 0.102683 0.95384 183 158 122 255 
1.25614 4.50709 -2.70017 -0.186161 -0.065928 0.980305 176 151 121 255 
1.25375 4.52858 -2.69712 -0.246118 -0.129869 0.9605 174 154 127 255 
1.26168 4.54383 -2.68946 -0.173341 -0.155588 0.972494 171 152 120 255 
1.37727 4.50494 -2.69791 0.243735 0.033159 0.969275 179 154 134 255 
1.34171 4.55732 -2.69101 0.415309 -0.191359 0.889325 166 143 118 255 
1.44671 4.49898 -2.73896 0.602089 0.197949 0.773501 163 129 120 255 
1.27494 4.48991 -2.69678 0.019972 -0.211186 0.977242 189 175 148 255 
1.30585 4.53152 -2.69117 0.029894 -0.150431 0.988168 151 128 108 255 
1.24876 4.57037 -2.69251 -0.195122 -0.059806 0.978954 186 164 137 255 
1.42271 4.49823 -2.71769 0.891703 0.050394 0.449807 157 114 93 255 
1.33618 4.46849 -2.69383 0.016666 -0.027687 0.999478 161 144 128 255 
1.28526 4.56623 -2.68727 0.118591 -0.078989 0.989797 183 160 135 255 
1.33004 4.53781 -2.6911 0.062562 -0.123117 0.990418 178 156 128 255 
1.32251 4.55831 -2.69019 0.016289 -0.010428 0.999813 172 147 122 255 
1.23354 4.55901 -2.69726 -0.187963 -0.14371 0.971606 172 148 123 255 
1.22053 4.53984 -2.69987 -0.162173 -0.133673 0.977666 171 150 128 255 
1.39356 4.58717 -2.72088 0.517974 0.254682 0.816603 165 142 128 255 
1.44655 4.57732 -2.75523 0.855187 0.437065 0.278619 121 69 64 255 
1.28336 4.53016 -2.69292 0.062792 -0.111996 0.991723 154 131 116 255 
1.34496 4.49011 -2.69375 0.014865 -0.116787 0.993046 178 159 134 255 
1.21445 4.49455 -2.70746 -0.113565 -0.113351 0.987043 164 145 128 255 
1.36954 4.4839 -2.69738 0.434807 0.10177 0.894755 173 147 120 255 
1.25339 4.60585 -2.68802 -0.204804 -0.076024 0.975846 172 152 129 255 
1.41774 4.55739 -2.72674 0.478266 0.017129 0.878048 143 96 99 255 
1.45092 4.54946 -2.75111 0.950167 0.020801 0.311047 119 77 64 255 
1.30922 4.48402 -2.69351 -0.114326 -0.085329 0.989772 181 160 133 255 
1.41317 4.58803 -2.72566 0.497024 0.397204 0.771489 152 123 105 255 
1.39553 4.49262 -2.71173 0.387534 0.16824 0.906373 176 165 156 255 
1.28713 4.50624 -2.69303 -0.182919 -0.194007 0.963796 171 157 133 255 
1.42914 4.53612 -2.72762 0.675005 -0.042668 0.736579 133 79 69 255 
1.31642 4.46654 -2.69674 0.04568 -0.150731 0.987519 155 137 114 255 
1.45118 4.52941 -2.74885 0.759982 -0.011034 0.649851 100 45 46 255 
1.36523 4.5835 -2.70281 0.509111 0.053283 0.85905 142 123 107 255 
1.23592 4.61312 -2.68872 -0.089884 -0.141876 0.985795 177 155 128 255 
1.327 4.60704 -2.69365 0.111485 0.044813 0.992755 181 161 141 255 
1.28138 4.58957 -2.68791 -0.115921 -0.163323 0.979739 183 158 131 255 
1.32796 4.45199 -2.6968 -0.040995 -0.081992 0.99579 179 152 125 255 
1.35991 4.51279 -2.69787 0.500692 -0.021109 0.865368 171 146 122 255 
1.34549 4.59984 -2.69928 0.45905 0.239203 0.855602 148 131 120 255 
1.41385 4.53602 -2.71303 0.30464 0.11972 0.944913 146 111 99 255 
1.45335 4.51153 -2.75348 0.900028 0.08609 0.427246 132 91 72 255 
1.29162 4.47636 -2.69469 -0.072233 -0.092482 0.993091 194 169 136 255 
1.24492 4.4921 -2.70389 -0.123695 -0.173989 0.976948 174 149 116 255 
1.23154 4.58973 -2.69173 -0.113427 -0.051783 0.992196 176 155 131 255 
1.31508 4.51118 -2.69368 0.000144 -0.032608 0.999468 165 141 113 255 
1.23556 4.52007 -2.70246 -0.180401 -0.133003 0.974559 172 148 120 255 
1.26106 4.58729 -2.68802 -0.09723 -0.069193 0.992854 186 158 126 255 
1.40212 4.5707 -2.72144 0.176816 0.285217 0.942012 156 135 110 255 
1.39784 4.46627 -2.7085 0.404154 0.025763 0.914328 152 125 99 255 
1.35436 4.47305 -2.69519 0.290465 0.034555 0.956261 168 146 120 255 
1.38411 4.56858 -2.71222 0.415373 0.263207 0.87074 148 125 104 255 
1.45957 4.53608 -2.77126 0.981059 0.040792 0.189367 118 78 62 255 
1.37842 4.60157 -2.71896 0.3207 0.468243 0.823347 160 137 114 255 
1.30913 4.58033 -2.68962 0.039591 0.136424 0.989859 174 153 130 255 
1.35576 4.53622 -2.69363 0.485361 0.09131 0.869533 160 132 103 255 
1.41226 4.51471 -2.71687 0.055686 0.119082 0.991322 133 107 92 255 
1.30027 4.62768 -2.68513 0.237827 -0.266378 0.934067 184 162 140 255 
1.39304 4.52786 -2.70969 0.282388 -0.044707 0.958258 185 162 132 255 
1.29558 4.54783 -2.68901 0.055142 -0.10077 0.99338 193 177 151 255 
1.21293 4.51679 -2.70513 -0.071869 -0.030932 0.996934 181 153 125 255 
1.45983 4.56812 -2.7769 0.994119 -0.000348 0.108297 115 67 55 255 
1.32456 4.31919 -2.6972 -0.253415 0.033567 0.966775 164 144 119 255 
1.45037 4.39586 -2.73802 0.65385 0.04016 0.755557 161 131 105 255 
1.28237 4.44626 -2.69784 -0.179417 -0.088444 0.979789 164 144 117 255 
1.32302 4.42826 -2.69701 -0.145665 -0.067538 0.987026 162 127 99 255 
1.45731 4.37847 -2.73639 0.858391 0.302143 0.414578 122 100 73 255 
1.43778 4.33132 -2.70991 0.764174 0.161545 0.624453 193 169 142 255 
1.46089 4.47408 -2.76067 0.913474 -0.112565 0.391017 145 107 79 255 
1.37069 4.38734 -2.69388 0.015926 0.086224 0.996149 181 162 134 255 
1.24072 4.29604 -2.72179 -0.39396 -0.014671 0.91901 158 140 116 255 
1.27807 4.41733 -2.70018 -0.161364 -0.038977 0.986125 165 148 127 255 
1.36024 4.37169 -2.69228 -0.031918 0.120681 0.992178 165 145 124 255 
1.22812 4.3517 -2.7233 -0.260825 -0.067828 0.963 161 142 118 255 
1.24901 4.35348 -2.71919 -0.241601 -0.2133 0.946643 163 145 123 255 
1.29249 4.3229 -2.7052 -0.252267 0.016113 0.967524 161 145 125 255 
1.34756 4.42332 -2.69428 -0.160641 0.022717 0.986751 186 153 118 255 
1.26434 4.44582 -2.70219 -0.168394 -0.027761 0.985329 188 163 136 255 
1.45259 4.34552 -2.72815 0.539052 0.032327 0.841652 165 139 114 255 
1.24045 4.41342 -2.70627 -0.226532 -0.279381 0.933076 172 154 128 255 
1.41459 4.37117 -2.69741 0.197354 0.027062 0.979959 178 169 158 255 
1.33381 4.3862 -2.69491 -0.127907 -0.029291 0.991354 164 144 117 255 
1.33159 4.34275 -2.69593 -0.420707 -0.018095 0.907016 169 151 127 255 
1.43529 4.44902 -2.72984 0.528713 0.216356 0.820764 143 114 90 255 
1.44123 4.30958 -2.70557 0.786317 0.037563 0.61668 149 124 96 255 
1.41881 4.42643 -2.70965 0.203393 0.174993 0.963332 147 122 102 255 
1.24545 4.44462 -2.70582 -0.146016 -0.028036 0.988885 166 146 121 255 
1.24165 4.4672 -2.70587 -0.154512 -0.122931 0.980313 188 167 141 255 
1.34651 4.35847 -2.69335 -0.121032 -0.051652 0.991304 161 137 109 255 
1.26251 4.38986 -2.70691 -0.181022 -0.177229 0.967378 173 147 117 255 
1.27538 4.35324 -2.71062 -0.35469 0.113879 0.928023 158 140 117 255 
1.35039 4.44588 -2.69529 -0.097122 -0.018455 0.995101 172 151 126 255 
1.34911 4.40242 -2.69645 -0.119904 0.060655 0.990931 174 147 116 255 
1.41156 4.33443 -2.69747 0.270922 0.245853 0.930676 148 133 119 255 
1.39715 4.42148 -2.69889 0.365669 0.144914 0.919395 152 126 99 255 
1.33072 4.41104 -2.69684 -0.08837 0.014923 0.995976 180 151 119 255 
1.3677 4.43534 -2.69566 0.189477 -0.034551 0.981277 154 135 115 255 
1.4584 4.50277 -2.77184 0.981921 0.180334 0.057538 131 93 70 255 
1.25488 4.37025 -2.71241 -0.239578 -0.207455 0.948454 163 141 116 255 
1.29352 4.35905 -2.70562 -0.312332 -0.109457 0.943646 163 143 122 255 
1.40097 4.35854 -2.69773 0.220935 0.050792 0.973965 155 133 115 255 
1.44021 4.42971 -2.72885 0.89672 0.22827 0.379192 180 149 129 255 
1.31975 4.36644 -2.69813 -0.270155 -0.07282 0.960059 164 142 116 255 
1.26124 4.29732 -2.71357 -0.302455 -0.02054 0.952942 165 147 126 255 
1.36958 4.4162 -2.69559 0.087812 0.033807 0.995563 171 148 123 255 
1.36786 4.3183 -2.69184 -0.047775 0.109622 0.992825 179 158 131 255 
1.29422 4.38783 -2.7014 -0.204501 -0.148493 0.967538 176 153 114 255 
1.45164 4.32078 -2.7208 0.574902 0.313072 0.755959 131 105 86 255 
1.41763 4.45261 -2.71169 0.102643 -0.090066 0.990632 174 165 157 255 
1.30197 4.45451 -2.69618 0.038732 -0.10602 0.993609 167 145 125 255 
1.26142 4.31972 -2.71284 -0.430854 0.005538 0.902405 157 137 113 255 
1.44868 4.41482 -2.73676 0.815473 0.204182 0.541585 159 131 106 255 
1.40551 4.39083 -2.70052 0.434116 -0.001433 0.900856 161 143 122 255 
1.44629 4.36904 -2.71877 0.710033 0.290046 0.641659 110 83 66 255 
1.22666 4.37663 -2.72063 -0.246118 -0.129869 0.9605 162 147 129 255 
1.38805 4.3747 -2.69384 0.172912 -0.107173 0.979089 171 146 114 255 
1.30058 4.41525 -2.69817 0.063782 0.00053 0.997964 173 153 133 255 
1.38588 4.39819 -2.69607 0.226247 0.205759 0.95209 164 141 115 255 
1.45378 4.45784 -2.74929 0.523086 0.10535 0.845744 132 93 73 255 
1.26475 4.47417 -2.70005 -0.195788 -0.082129 0.977201 164 144 118 255 
1.30046 4.34167 -2.70398 -0.162528 0.017976 0.98654 171 153 131 255 
1.21976 4.46751 -2.71025 0.23491 -0.112416 0.965495 182 166 141 255 
1.42568 4.38723 -2.708 0.364803 0.155577 0.917995 176 153 130 255 
1.42788 4.3603 -2.70552 0.197475 0.044479 0.979298 138 110 83 255 
1.43694 4.48341 -2.73263 0.617073 0.031189 0.786287 131 96 77 255 
1.38144 4.34737 -2.6922 0.313204 0.051807 0.948272 171 146 119 255 
1.39545 4.44606 -2.7045 0.118936 0.101746 0.987675 179 160 128 255 
1.31309 4.39725 -2.69811 0.016323 0.029173 0.999441 168 145 121 255 
1.42321 4.31569 -2.69669 0.441309 0.083966 0.893418 144 125 110 255 
1.35924 4.33687 -2.6917 -0.040018 0.109757 0.993153 157 131 106 255 
1.25876 4.41034 -2.70654 -0.064732 -0.053333 0.996476 174 152 131 255 
1.42264 4.40914 -2.70274 0.296252 0.189878 0.936046 137 117 103 255 
1.43301 4.41422 -2.71806 0.574019 -0.08402 0.81452 188 162 129 255 
1.23942 4.39245 -2.7129 -0.201219 -0.258954 0.944698 176 153 112 255 
1.24082 4.31919 -2.72164 -0.212406 -0.08695 0.973305 156 138 113 255 
1.44211 4.38717 -2.7214 0.656059 0.248562 0.712604 153 127 103 255 
1.27957 4.30297 -2.70723 -0.303916 -0.003192 0.952694 163 146 123 255 
1.46327 4.45821 -2.77058 0.755208 0.200937 0.623927 137 111 93 255 
1.48206 4.42492 -2.78024 0.771189 0.012545 0.636483 124 99 79 255 
1.49088 4.26809 -2.77579 0.903003 -0.169007 0.394996 157 125 99 255 
1.50382 4.29611 -2.83404 0.984394 0.054585 0.167302 120 91 67 255 
1.50424 4.28288 -2.80409 0.985309 -0.135426 0.104048 140 113 88 255 
1.49439 4.34667 -2.80014 0.885371 0.238735 -0.398903 125 97 76 255 
1.47081 4.39997 -2.76386 0.631584 0.399995 0.664158 147 122 98 255 
1.48369 4.38331 -2.7747 0.730983 0.225603 0.644024 138 113 87 255 
1.48683 4.29471 -2.76428 0.94524 0.030601 0.324938 142 117 90 255 
1.47616 4.31095 -2.74486 0.797557 0.01034 0.603155 153 128 105 255 
1.50037 4.24673 -2.80326 0.988537 -0.140224 0.055958 136 105 74 255 
1.49888 4.40964 -2.83072 0.86314 0.136545 0.486153 114 78 59 255 
1.50627 4.26868 -2.81649 0.994357 -0.022492 0.103678 117 94 68 255 
1.48014 4.47391 -2.80134 -0.364291 0.469653 0.804188 97 79 59 255 
1.5038 4.3478 -2.82201 0.76383 -0.011002 0.645324 137 110 83 255 
1.49094 4.31247 -2.7764 0.88895 0.319068 0.328579 144 117 100 255 
1.46405 4.52782 -2.7936 0.905665 0.281622 0.316954 122 92 64 255 
1.49935 4.32048 -2.79864 0.997378 0.042462 -0.058608 159 133 111 255 
1.48894 4.33185 -2.784 0.931712 0.215452 0.292394 156 133 115 255 
1.48243 4.34858 -2.76925 0.941285 -0.11529 0.317317 140 110 81 255 
1.46323 4.32971 -2.73443 0.688524 0.337293 0.642003 134 105 76 255 
1.48791 4.43202 -2.80016 0.994957 0.065575 0.075896 133 103 82 255 
1.48437 4.50389 -2.84637 0.807261 0.075174 0.585387 131 106 80 255 
1.48382 4.32836 -2.7658 0.92033 0.279848 0.273271 146 113 88 255 
1.49899 4.44059 -2.84406 0.928731 0.35994 0.088891 115 87 63 255 
1.46782 4.47832 -2.77972 0.891132 0.274522 0.361277 135 94 72 255 
1.5073 4.30962 -2.81699 0.876687 0.023885 0.480468 121 96 71 255 
1.49253 4.43048 -2.82168 0.896843 0.005771 0.442311 121 98 75 255 
1.47005 4.43755 -2.77003 0.692319 0.253252 0.67569 157 133 113 255 
1.50928 4.35918 -2.83789 0.977745 -0.075402 -0.19578 120 90 65 255 
1.46932 4.29378 -2.73157 0.675216 0.285864 0.679974 130 108 89 255 
1.50602 4.25483 -2.83129 0.990931 0.097693 0.092263 118 87 55 255 
1.50205 4.29858 -2.79284 0.609154 -0.003461 0.793045 131 106 81 255 
1.47839 4.5062 -2.81423 0.894689 0.180025 0.408806 110 87 67 255 
1.47787 4.52457 -2.82493 0.871582 0.320033 0.371382 126 103 82 255 
1.48349 4.48579 -2.832 0.934763 0.021643 0.354611 143 117 95 255 
1.50204 4.36669 -2.81455 0.949759 0.243765 0.196307 131 109 87 255 
1.47397 4.49541 -2.79774 0.96228 0.271888 0.009736 140 109 87 255 
1.48213 4.40504 -2.77931 0.923261 0.04125 0.381951 120 93 66 255 
1.49908 4.26453 -2.79257 0.925324 -0.313999 -0.212556 115 92 69 255 
1.49205 4.37345 -2.79023 0.921574 0.260883 0.287475 115 96 71 255 
1.49545 4.3928 -2.82065 0.831704 0.532258 0.158021 131 105 84 255 
1.47623 4.34316 -2.75183 0.856533 0.135129 0.498087 150 126 100 255 
1.46017 4.42795 -2.75122 0.752443 0.4511 0.479936 144 118 92 255 
1.48093 4.44505 -2.78856 0.908971 0.213441 0.358071 125 91 74 255 
1.50898 4.3284 -2.82589 0.977632 -0.166187 0.128908 128 106 85 255 
1.50508 4.39032 -2.84094 0.972356 0.143033 -0.184566 105 79 64 255 
1.49179 4.40868 -2.79952 0.929787 0.09427 0.355821 144 111 88 255 
1.48583 4.45693 -2.80842 0.995141 0.08533 0.049125 133 107 83 255 
1.47261 4.37119 -2.75741 0.707023 0.165363 0.687585 145 116 95 255 
1.48909 4.45439 -2.83263 0.952037 0.258734 0.163347 127 105 83 255 
1.36056 4.61573 -2.70909 0.501904 0.11062 0.85782 174 158 137 255 
1.27255 4.72727 -2.69201 0.281883 0.010857 0.959387 174 157 135 255 
1.32695 4.86034 -2.78017 0.726781 0.226752 0.648362 173 153 122 255 
1.31725 4.84278 -2.74655 0.363364 0.390299 0.845951 166 143 111 255 
1.25241 4.7426 -2.69131 -0.196604 -0.115588 0.973646 158 137 121 255 
1.40153 4.6601 -2.76105 0.758528 0.253872 0.600154 183 157 134 255 
1.40526 4.76657 -2.85147 0.899072 0.25249 0.357656 146 120 97 255 
1.41514 4.67262 -2.7876 0.832106 0.044255 0.552848 143 117 86 255 
1.33676 4.67553 -2.71466 0.471767 0.336836 0.814848 169 139 110 255 
1.35478 4.65508 -2.72327 0.371348 0.214225 0.903443 193 183 169 255 
1.34055 4.80528 -2.74499 0.615853 0.533462 0.579779 189 168 147 255 
1.35525 4.83137 -2.80442 0.758962 0.536657 0.368749 167 149 121 255 
1.27883 4.81616 -2.71752 0.365155 0.179881 0.913403 178 156 128 255 
1.28087 4.62405 -2.68555 0.174037 0.073102 0.982022 190 163 133 255 
1.34146 4.64465 -2.70821 0.417685 0.343343 0.841222 167 148 124 255 
1.34968 4.75701 -2.74757 0.737006 0.128823 0.663496 171 145 119 255 
1.38675 4.7639 -2.79887 0.898823 0.27174 0.34391 145 117 87 255 
1.31614 4.63685 -2.6959 0.357613 0.155881 0.920768 186 164 133 255 
1.42604 4.62252 -2.76449 0.73145 0.623519 0.276054 153 126 106 255 
1.31994 4.66637 -2.70375 0.40885 0.191271 0.892332 174 153 127 255 
1.26096 4.62278 -2.68285 0.095587 0.073318 0.992717 179 156 130 255 
1.42898 4.70274 -2.8464 0.920776 -0.022147 0.389462 138 112 88 255 
1.30922 4.76539 -2.72003 0.427284 -0.00141 0.904117 175 154 125 255 
1.23543 4.77009 -2.69573 0.242908 0.135746 0.960505 161 136 108 255 
1.27262 4.67525 -2.69031 0.063825 -0.056303 0.996372 170 148 126 255 
1.27011 4.79639 -2.71049 0.418381 0.117349 0.900659 164 139 115 255 
1.375 4.76304 -2.77318 0.764174 0.161545 0.624453 153 132 116 255 
1.31898 4.69455 -2.71108 0.411785 0.043125 0.91026 169 146 123 255 
1.40687 4.73111 -2.81278 0.938552 0.305518 0.160562 158 128 106 255 
1.38405 4.65958 -2.74827 0.427105 0.112937 0.897121 160 134 104 255 
1.25331 4.88403 -2.72182 0.259974 0.327624 0.908337 145 124 104 255 
1.32848 4.82386 -2.75537 0.765136 0.109299 0.634524 132 110 79 255 
1.36633 4.80751 -2.80076 0.54597 0.424743 0.722157 138 114 90 255 
1.33767 4.72711 -2.72964 0.588216 0.144085 0.795765 152 132 109 255 
1.34462 4.62166 -2.69916 0.262753 0.270227 0.92625 171 150 125 255 
1.42308 4.72155 -2.8542 0.883566 0.460643 0.084379 156 128 104 255 
1.25864 4.82319 -2.71028 0.278439 0.245559 0.928532 163 139 110 255 
1.27173 4.75738 -2.69842 0.297194 0.1199 0.947259 175 154 131 255 
1.37037 4.65083 -2.73569 0.714203 -0.111308 0.691032 156 128 92 255 
1.30411 4.68328 -2.70003 0.479722 0.080647 0.873707 171 152 124 255 
1.24176 4.83131 -2.70683 0.32835 0.335259 0.883056 167 149 125 255 
1.24465 4.86695 -2.71446 0.404355 -0.036118 0.913889 150 131 111 255 
1.45249 4.6265 -2.82909 0.867632 0.336053 0.366446 138 106 82 255 
1.33604 4.76873 -2.73518 0.563455 0.390586 0.727985 106 82 70 255 
1.29345 4.72728 -2.70121 0.570903 0.211781 0.793233 164 143 121 255 
1.29571 4.70303 -2.6984 0.41 0.180795 0.893987 163 140 119 255 
1.27282 4.84655 -2.71971 0.707707 0.306601 0.636511 177 158 133 255 
1.23625 4.65658 -2.68742 -0.073076 0.083234 0.993847 170 147 120 255 
1.36215 4.73851 -2.75445 0.282533 0.333511 0.899414 138 117 88 255 
1.34971 4.7935 -2.76157 0.809048 0.209207 0.549249 173 149 125 255 
1.44698 4.59475 -2.78615 0.839349 0.505599 0.19966 119 77 77 255 
1.39449 4.71683 -2.77768 0.89022 0.300058 0.342743 182 158 135 255 
1.37045 4.78846 -2.78516 0.808084 0.232893 0.541074 146 127 101 255 
1.40455 4.61522 -2.74579 0.846136 0.075606 0.527578 155 133 115 255 
1.41095 4.69076 -2.79022 0.820855 0.401587 0.406111 145 119 94 255 
1.2162 4.86352 -2.70391 0.388709 -0.020004 0.921143 155 133 110 255 
1.44115 4.59638 -2.75963 0.959018 0.204439 0.196187 102 82 84 255 
1.35002 4.81211 -2.77993 0.596422 0.058466 0.800539 147 122 96 255 
1.2544 4.77615 -2.69838 0.356308 0.23236 0.905016 176 152 124 255 
1.2987 4.81215 -2.72708 0.374227 0.087905 0.923161 153 134 110 255 
1.44019 4.67031 -2.86174 0.798762 0.364668 0.478536 134 111 83 255 
1.43923 4.64349 -2.8209 0.966039 0.194963 0.16958 147 124 106 255 
1.28935 4.74944 -2.70334 0.417151 0.228884 0.879544 180 161 138 255 
1.29979 4.87479 -2.75447 0.469091 0.617486 0.631399 143 126 108 255 
1.35701 4.68158 -2.72852 0.598164 0.242616 0.763765 146 120 93 255 
1.42433 4.66218 -2.80401 0.825151 0.331515 0.45741 144 124 103 255 
1.45104 4.60244 -2.80505 0.77869 0.488159 0.394136 131 98 83 255 
1.23005 4.69192 -2.69103 -0.113213 0.038699 0.992817 175 157 136 255 
1.29736 4.64841 -2.69243 0.470476 0.1486 0.86981 163 136 107 255 
1.43363 4.66272 -2.82663 0.859076 0.49725 0.121375 146 123 101 255 
1.29628 4.86265 -2.73828 0.974021 -0.069595 0.2155 189 174 154 255 
1.41954 4.70505 -2.82477 0.818667 0.343083 0.460519 147 124 97 255 
1.3911 4.61242 -2.73181 0.471045 0.322881 0.820892 131 100 80 255 
1.30792 4.74711 -2.71526 0.441826 0.321965 0.837334 160 139 117 255 
1.43032 4.67505 -2.84319 0.782959 0.615494 0.090233 161 133 111 255 
1.27922 4.87571 -2.73624 0.586228 0.444904 0.67705 165 139 119 255 
1.40283 4.72476 -2.79372 0.707725 0.130657 0.694301 120 94 67 255 
1.37762 4.81602 -2.81646 0.515737 0.013549 0.85664 167 147 122 255 
1.40666 4.6324 -2.75839 0.56067 0.406287 0.721512 142 120 95 255 
1.36142 4.70455 -2.73865 0.453943 0.229644 0.86093 147 130 110 255 
1.42387 4.67845 -2.81429 0.874509 0.346166 0.339709 117 91 64 255 
1.38515 4.63811 -2.74011 0.508329 0.145308 0.848815 133 103 80 255 
1.3793 4.79404 -2.80433 0.890788 0.287313 0.352063 174 149 119 255 
1.42067 4.59655 -2.74082 0.390364 0.531304 0.751886 86 64 65 255 
1.25324 4.64344 -2.68326 -0.129518 -0.084923 0.987934 177 159 134 255 
1.38112 4.71327 -2.76311 0.764174 0.161545 0.624453 154 131 106 255 
1.38262 4.67846 -2.75188 0.527892 0.167993 0.832531 128 114 98 255 
1.34034 4.70387 -2.724 0.334597 0.184846 0.924055 182 157 131 255 
1.41384 4.72847 -2.83133 0.839066 0.438722 0.321702 135 115 88 255 
1.39645 4.7615 -2.82536 0.838114 0.300338 0.455371 126 102 73 255 
1.22371 4.84647 -2.70508 0.30464 0.11972 0.944913 169 132 101 255 
1.27887 4.77975 -2.70972 0.338291 0.308541 0.889023 169 150 125 255 
1.4197 4.63898 -2.77528 0.845332 0.402328 0.35149 145 122 100 255 
